# .PCD v0.7 - Point Cloud Data file format
VERSION 0.7
FIELDS x y z normal_x normal_y normal_z curvature
SIZE 4 4 4 4 4 4 4
TYPE F F F F F F F
COUNT 1 1 1 1 1 1 1
WIDTH 613
HEIGHT 1
VIEWPOINT 0 0 0 1 0 0 0
POINTS 613
DATA ascii
6.7680249 -4.853313 -1.0766853 0.93009841 -0.37556824 -0.015498286 0.020031704
6.7655063 -4.8581586 -1.0767645 0.9196642 -0.38943252 -0.052710023 0.017299583
6.7645226 -4.8601542 -1.0767533 0.92181534 -0.38010463 -0.076159537 0.019080427
6.7627187 -4.865509 -1.076982 0.91711766 -0.38227788 -0.11472788 0.018056286
6.7620363 -4.8672171 -1.077059 0.92303938 -0.35318801 -0.15401079 0.016843401
6.7594223 -4.8720374 -1.0772241 0.99649841 -0.094390593 -0.19611555 0.024587726
6.7592802 -4.8748202 -1.0774066 0.97626483 -0.054300625 -0.21018869 0.016188757
6.7600374 -4.882565 -1.0779418 0.98321366 -0.035435397 -0.18067934 0.012485213
6.759634 -4.8848438 -1.0782489 0.96569943 -0.15954493 -0.20609172 0.014348272
6.757834 -4.8904319 -1.0781125 0.89548379 -0.2832948 -0.3440088 0.023778385
6.7571259 -4.891901 -1.078716 0.90611434 -0.23533811 -0.35183436 0.027483435
6.6917 -4.8797002 -1.0709 -0.52295369 -0.86905295 -0.0026645821 3.5411511e-05
6.6826 -4.8761001 -1.0697 -0.55251843 -0.8573404 -0.0082995221 0.00024882745
7.7114496 -4.5413313 -1.1589482 0.49763677 -0.95014048 -0.21865438 0.014614348
7.7095566 -4.542347 -1.1588578 0.45546302 -0.96449757 -0.073942199 0.014614348
7.7258115 -4.5585079 -1.1616378 0.34649211 -0.98044848 -0.2648789 0.026740095
7.7196789 -4.5583806 -1.1610146 -0.44577107 -0.95975846 0.15200126 0.022243746
6.7556386 -4.0207114 -1.0184418 0.48578674 -0.84569186 -0.2701638 0.014465332
6.7538881 -4.021965 -1.0180168 0.58030242 -0.77394211 -0.2684395 0.017082101
6.7497759 -4.0253787 -1.0179559 0.75084859 -0.63026005 -0.21879371 0.019071443
6.7478533 -4.0268164 -1.0177592 0.40767014 -0.92243195 -0.23045544 0.024296105
6.9327502 -4.243144 -1.0530661 -0.6219511 -1.872169 -0.25101995 0.026459374
6.9211998 -4.2420998 -1.0518 0.51483536 0.92699909 0.023516888 0.00099855033
6.9274349 -4.247992 -1.0529109 0.38962069 -1.1114603 -0.016019942 0.19753693
6.9649982 -4.3167386 -1.0618385 0.052981041 -1.0285746 -0.27928421 0.028328793
6.9589329 -4.3189554 -1.0612224 0.63858581 -0.76478136 0.11221822 0.10622165
6.9568663 -4.3209581 -1.0612398 0.60548544 -0.79997599 -0.053781863 0.054507557
6.95439 -4.323915 -1.0614228 0.51550245 -0.85775936 0.010676096 0.064706974
6.9417 -4.3287001 -1.0602 3.8580956 5.4396315 -1.909964 0.076320961
6.9292383 -4.3270087 -1.0588375 0.14912312 0.46563646 0.97761148 0.018672206
6.9264779 -4.3280644 -1.0581938 -0.17680806 0.54279399 0.8351059 0.01853352
6.9218397 -4.3313355 -1.0582443 -0.54931855 0.52094394 0.65392017 0.026337575
6.920465 -4.3331094 -1.0580568 0.62156999 -0.55569643 -0.55956411 0.056635909
6.9171658 -4.3371305 -1.058156 0.87909549 -0.44851273 -0.18731926 0.078128599
6.9160976 -4.3393855 -1.0580872 0.92498302 -0.39210802 0.0027138053 0.056766257
6.9149609 -4.3449054 -1.0588554 0.94946408 -0.059338957 0.63758904 0.077374756
6.9144611 -4.3472171 -1.0583922 0.85487682 -0.062607013 0.72901022 0.043273851
6.9263678 -4.4416728 -1.0667437 0.85048997 0.38219765 -0.51364326 0.074547522
6.9317174 -4.4486785 -1.0677773 0.98553085 0.34120572 0.48773211 0.059269279
6.9327626 -4.4553113 -1.0683669 0.94597805 0.034492746 0.38943085 0.039524976
6.9328523 -4.458518 -1.0688068 0.87386847 -0.082079865 0.58340448 0.044225823
6.9327087 -4.4643064 -1.0690336 0.852175 -0.048926685 0.5209645 0.0019925928
6.9256892 -4.4901958 -1.070212 0.64975023 -0.25325322 0.71671993 0.0004643279
6.9312606 -4.4996967 -1.0716385 -0.40144357 -0.021112531 0.91564041 0.0032199034
6.7686944 -4.8504725 -1.0815451 0.92705876 -0.35342649 -0.13243301 0.030224269
6.7675419 -4.8525786 -1.0817095 0.90981638 -0.38531145 -0.1544137 0.020593673
6.7647862 -4.8571968 -1.0817094 0.9120819 -0.40067405 -0.088347018 0.015701765
6.7637682 -4.8596439 -1.0818332 0.93080884 -0.35554865 -0.085170723 0.018248752
6.7621589 -4.8646441 -1.0820745 0.8964842 -0.43721136 -0.076433875 0.020546954
6.760869 -4.8664603 -1.0820694 0.91465753 -0.39905462 -0.078051224 0.022291243
6.7580647 -4.8710232 -1.0821383 1.0131937 -0.11620866 -0.077587672 0.027620375
6.7583537 -4.8747749 -1.0824624 0.995193 -0.048368718 -0.090245783 0.019833378
6.7588696 -4.8810973 -1.0830941 0.97338325 -0.094382919 -0.20994835 0.013979794
6.7584529 -4.8838563 -1.0832739 0.94188178 -0.20207457 -0.26853144 0.015324228
6.7567635 -4.8888531 -1.0835322 0.91046393 -0.32025319 -0.26239124 0.014427518
6.7557092 -4.8914232 -1.0835385 0.88167059 -0.37983575 -0.28095219 0.018363513
6.7535758 -4.895956 -1.0838497 1.0008198 -0.11533251 -0.28810018 0.024201144
6.692111 -4.8798828 -1.0761998 -0.54250014 -0.84000874 -0.0088836849 1.122075e-05
6.6827788 -4.8762298 -1.0749 -0.58151716 -0.81353265 -0.0015416747 1.3444106e-05
7.7112527 -4.5405788 -1.1616871 1.1752635 -0.58585227 -0.32147515 0.015480881
7.7089071 -4.5422611 -1.1615746 -0.080823652 -1.1053877 -0.045636788 0.015480881
7.7239995 -4.5578609 -1.1643379 -0.62752163 -1.0257969 -0.0018944222 0.006297145
6.7554569 -4.0199499 -1.0205442 0.45132589 -0.89081043 -0.30523154 0.015039487
6.7533555 -4.0215364 -1.0203768 0.62506479 -0.73264056 -0.2766555 0.016625555
6.7496357 -4.0251536 -1.0202966 0.71135765 -0.67801321 -0.18582225 0.018508492
6.7477798 -4.0267382 -1.0201728 0.6027199 -0.78936398 -0.11839633 0.036490738
6.9317474 -4.2425427 -1.0555294 -7.8743782 -10.628297 0.46824315 0.17085327
6.9219055 -4.2434568 -1.0546947 -1.187492 -0.66012067 0.074813962 0.1399256
6.9280829 -4.2493291 -1.0556065 -2.8782625 -2.7528517 -0.11537668 0.24365658
6.965837 -4.316782 -1.0645243 -0.48257035 -1.4056302 0.02874106 0.014018331
6.9590664 -4.3188448 -1.0639043 0.56626683 -0.82435745 0.05641428 0.048308883
6.9565439 -4.3213301 -1.0635114 0.62926358 -0.78266543 0.02323922 0.066276886
6.9543953 -4.323658 -1.064163 0.53204858 -0.86114889 -0.10696039 0.075121567
6.9342928 -4.3241301 -1.0616518 0.1175654 0.4966774 0.859936 0.0021423458
6.9252038 -4.3247457 -1.0614786 -0.44274029 0.54250538 0.71450478 0.049795568
6.9240088 -4.3266411 -1.0606279 0.5299201 -0.50261992 -0.72587955 0.043107815
6.9201908 -4.3302574 -1.0605426 0.73291439 -0.47090483 -0.51575613 0.046794742
6.9191728 -4.3324008 -1.0605582 0.81795371 -0.45269576 -0.36728013 0.031860385
6.9168949 -4.3372726 -1.0607306 0.96368349 -0.27626142 0.026486535 0.05126657
6.9164143 -4.3398294 -1.0608571 0.95801848 -0.1516173 0.26951125 0.064043224
6.9171047 -4.3460107 -1.0612445 0.77772748 0.038793691 0.68345481 0.016841998
6.9293652 -4.4894853 -1.0732384 0.64409095 -0.27559501 0.71357846 0.00023309828
6.9281998 -4.4917998 -1.0732 0.52323562 -0.24976075 1.0124063 0.063042298
6.9264975 -4.4967027 -1.0733706 0.70098567 -0.24064605 1.0415715 0.034940053
6.9260001 -4.4994001 -1.0736001 0.98767126 -0.24101593 1.2862637 0.029487936
6.9267817 -4.506104 -1.0740588 -0.39820963 -0.087760895 0.91308659 0.00050516753
6.7681618 -4.8503904 -1.0840703 0.92818105 -0.31114036 -0.22480613 0.030411869
6.7671537 -4.8522196 -1.0842456 0.90173179 -0.38843614 -0.19045666 0.021121392
6.7643785 -4.8573542 -1.0843168 0.92472565 -0.37312984 -0.078074016 0.016369952
6.7636547 -4.8598208 -1.0844619 0.94681454 -0.31598371 -0.061189733 0.013742982
6.7620835 -4.864552 -1.0846983 0.91032708 -0.41510448 -0.014394657 0.021904038
6.760612 -4.8666377 -1.0846906 0.91043174 -0.41378909 -0.030055506 0.022662619
6.7582822 -4.870965 -1.084699 1.0195744 -0.10695731 0.0064640702 0.018725008
6.7585192 -4.874979 -1.0851566 0.99242496 -0.11596245 -0.05517032 0.01584914
6.7581415 -4.8807464 -1.0855358 0.95907867 -0.1630829 -0.23413859 0.0089355037
6.7577434 -4.883647 -1.0857352 0.94588304 -0.20082271 -0.25543892 0.015098928
6.7560258 -4.8890018 -1.085824 0.90327883 -0.34817168 -0.25150356 0.019401509
6.7552185 -4.8904152 -1.0862525 0.89686221 -0.36939409 -0.24392986 0.021857733
6.7529492 -4.8959789 -1.0861439 0.97341377 -0.2025018 -0.21838085 0.022447355
6.6922002 -4.8798995 -1.0788 -0.8053872 -0.79868752 -0.026615173 0.00077375263
6.6823072 -4.8758898 -1.0774 -0.57838219 -0.81576478 0.0013629239 6.5091835e-06
7.7102909 -4.5400281 -1.1671902 7.4131312 9.4337912 -0.20249851 0.0099931089
7.7085767 -4.5422487 -1.1670338 -5.6821179 -10.419602 -0.036536235 0.0099931089
7.7218761 -4.5566664 -1.1696541 -0.08675693 -0.97635198 -0.1980152 0.0018834102
6.7536111 -4.0191541 -1.0253437 0.47904661 -0.91229045 -0.31887677 0.024195263
6.7513766 -4.0209498 -1.0255681 0.62847567 -0.70244551 -0.34940597 0.024936436
6.7487993 -4.0247202 -1.0251111 0.79022247 -0.56517947 -0.26474553 0.028866038
6.7472878 -4.0267301 -1.0253047 0.71925539 -0.68425477 -0.16747583 0.023004839
6.9297481 -4.2415953 -1.06043 5.1307936 2.7487242 -1.4560999 0.1973213
6.9211593 -4.2430444 -1.0597827 -1.0912443 3.2666807 -0.03465201 0.1368373
6.9284644 -4.2490587 -1.0607452 0.61923534 2.6133835 0.021049565 0.19438317
6.9655418 -4.3167658 -1.0695907 0.7267862 -0.72390759 0.052637547 0.011397411
6.9607983 -4.3194857 -1.0695612 0.64522517 -0.73395348 0.24612875 0.029851252
6.9580917 -4.3214049 -1.0690113 0.43848738 -0.92041612 0.071083419 0.061405741
6.9511929 -4.3224339 -1.0684516 0.57449502 -0.71119952 -1.5971304 0.14822356
6.9249668 -4.3181467 -1.0653576 0.52998596 -1.0450563 -0.78897303 0.036331959
6.9224372 -4.3227687 -1.0651177 0.82255691 -0.37949866 -0.42527151 0.065795884
6.9214301 -4.3250279 -1.0653481 0.88613725 -0.37454066 -0.27293023 0.048633464
6.9193377 -4.3297005 -1.0654544 0.97885072 -0.29428488 0.039047461 0.038583599
6.9184976 -4.3319335 -1.0655557 1.0433429 -0.24287912 0.21673684 0.020289188
6.9186373 -4.3379097 -1.0659167 0.89792234 0.14268729 0.48006317 0.055999659
6.9210901 -4.342711 -1.0666764 0.57360601 0.57978427 0.84801716 0.017208101
6.9559541 -4.5005336 -1.0821702 0.24226668 -0.35201257 0.90409845 0.00077771483
6.9472904 -4.5040755 -1.0814462 0.050134495 0.045708239 1.1611267 0.0033350424
6.9399905 -4.5053811 -1.0807251 0.21579047 -0.066561967 1.1815251 0.0062923594
6.9377422 -4.5069089 -1.0806385 0.59296399 -0.83384156 0.47223762 0.010877785
6.9335556 -4.5105486 -1.0800456 0.84629846 -0.79318672 0.32915187 0.010039764
6.9322672 -4.5126629 -1.0807074 0.55177402 -0.41210499 0.72964752 0.017313683
6.9290934 -4.5166001 -1.0800707 0.19931503 -0.30862266 1.0765891 0.011901635
6.929306 -4.5198331 -1.0810912 0.44773349 -0.37998605 0.92483658 0.017606582
6.7667899 -4.848691 -1.0891466 1.0410171 0.099306092 -0.41649473 0.031140059
6.7662382 -4.8518391 -1.0892736 0.93320125 -0.30923989 -0.1915597 0.023823822
6.7645364 -4.8571053 -1.0895394 0.95342779 -0.28041604 -0.11255278 0.018692126
6.7639761 -4.8598928 -1.0896655 0.94688392 -0.30074736 -0.11548711 0.012370547
6.7623 -4.8648291 -1.0899497 0.92709225 -0.36820427 -0.070871502 0.015397503
6.7612538 -4.866713 -1.0899117 0.92739177 -0.37253743 -0.044408653 0.018093914
6.7592239 -4.8722191 -1.0902544 0.95300454 -0.29812777 -0.054620326 0.020929897
6.7584877 -4.8747215 -1.0903782 0.97909677 -0.19667172 -0.052857496 0.01691566
6.7570844 -4.8795152 -1.0906029 0.96337056 -0.19652157 -0.18306603 0.0090568671
6.7564859 -4.8825226 -1.0908161 0.9552123 -0.23264119 -0.18355201 0.013756434
6.7550826 -4.8879175 -1.0910426 0.95141846 -0.27248129 -0.14766417 0.020496445
6.7542143 -4.8900151 -1.0911349 0.93044668 -0.35242245 -0.10104215 0.021728
6.7517791 -4.8945661 -1.0912468 0.97309452 -0.2647399 -0.10865261 0.027840426
6.7513013 -4.8973899 -1.0914336 0.94137967 -0.33762676 -0.13349847 0.020129688
6.691463 -4.8795147 -1.0837952 -0.31760645 -0.94788349 0.028894953 0.001126559
6.6839838 -4.8771491 -1.0828965 -0.47031188 -0.89664769 0.044094674 0.0010924276
7.7099652 -4.5400333 -1.1699018 1.1261765 -0.79865986 -0.2135748 0.027702559
7.7084789 -4.5424457 -1.1699026 1.0911572 -0.5698244 0.071592145 0.027702559
7.7218075 -4.5563865 -1.1723 -0.50896484 -0.86078733 3.9994869e-05 1.302093e-05
6.7531939 -4.0187449 -1.0275882 0.30887789 -1.1838241 -0.30357966 0.028769288
6.7507224 -4.0200934 -1.0272921 0.5552057 -0.78559452 -0.37736076 0.027007759
6.7481771 -4.0242105 -1.0271896 0.84088004 -0.46224025 -0.32404962 0.026886703
6.7471266 -4.0263891 -1.0273963 0.85141486 -0.47742471 -0.2609449 0.02522089
6.928215 -4.2402005 -1.0623894 -2.7667954 -4.2173848 0.051771034 0.18405569
6.9231553 -4.2420692 -1.0619544 1.6954277 -2.3495679 0.0015048182 0.21152277
6.9278145 -4.2480721 -1.0629458 1.0274035 0.12108928 0.058747631 0.13982184
6.9656963 -4.3168788 -1.0721239 0.70894504 -0.72105634 -0.067348734 0.016405556
6.9615927 -4.3203893 -1.072 0.54979241 -0.83473635 0.15263569 0.024328552
6.9589496 -4.3213391 -1.0719428 0.26165959 -1.0800304 -0.14511438 0.061483901
6.9461999 -4.3196001 -1.0702 0.05916388 0.55166191 0.83196682 0
6.9235916 -4.31743 -1.0675491 0.60274875 -1.0404942 -0.53108162 0.041162241
6.9217877 -4.3216166 -1.067906 0.9501254 -0.26657313 -0.16611281 0.040169507
6.9210243 -4.3250341 -1.0679393 0.97572052 -0.24919648 0.048220418 0.051806405
6.9199257 -4.329864 -1.0681303 1.0359108 -0.12321644 0.43802312 0.042531133
6.9191842 -4.3324876 -1.0683752 0.91592443 -0.068657435 0.40365672 0.043293927
6.923593 -4.3410664 -1.0691845 0.61053199 0.22236764 0.76013374 0.00026259499
6.965395 -4.5035911 -1.0859041 0.15183094 -1.1149317 0.1159745 0.00672741
6.9619555 -4.5044341 -1.0856574 0.3325741 -0.67600918 0.67474693 0.031087592
6.9578052 -4.5077276 -1.0855446 0.31357822 -0.6498338 0.70840305 0.029665669
6.9547873 -4.5089622 -1.0851376 0.28506005 -0.68174541 0.67548317 0.017781351
6.9450669 -4.5085621 -1.0842491 0.20989935 -0.61201072 0.76745266 0.0073917811
6.941412 -4.5093212 -1.0836743 0.29254332 -0.58048809 0.76203024 0.0055413567
6.9348316 -4.5114217 -1.0827202 0.49935979 -0.46382418 0.7333703 0.010039764
6.934433 -4.5139761 -1.0835015 0.56288153 -0.42064467 0.7118606 0.01724535
6.9322515 -4.5186405 -1.0831627 0.66143429 -0.39271715 0.63927358 0.014717647
6.9316936 -4.521255 -1.0842609 0.68462169 -0.43051881 0.58942181 0.0095295943
6.9280944 -4.52492 -1.0832578 0.34666285 -0.69430697 0.83293468 0.016392829
6.7660174 -4.8484354 -1.0915533 1.1283839 0.30810651 -0.27481839 0.029032947
6.7658806 -4.8518066 -1.0917405 0.95457578 -0.21211965 -0.22537611 0.017172869
6.7642331 -4.8567829 -1.09207 0.94886726 -0.24597953 -0.19807458 0.008303728
6.763411 -4.8593688 -1.0921822 0.93140471 -0.30919567 -0.19254255 0.0086675435
6.7618322 -4.8646321 -1.0924484 0.93838418 -0.30956781 -0.15509573 0.0086570214
6.7611756 -4.8665528 -1.0925245 0.92805588 -0.35124213 -0.12483919 0.015314207
6.7593498 -4.8717613 -1.0927771 0.93082279 -0.33427411 -0.14819922 0.020378809
6.7583036 -4.8743234 -1.0929127 0.96531278 -0.23047051 -0.12358493 0.017997708
6.7565556 -4.8792586 -1.0931399 0.96458238 -0.22203368 -0.1426532 0.010628427
6.7559853 -4.8822479 -1.0932707 0.96321541 -0.22442146 -0.14910902 0.013495829
6.7548032 -4.8881664 -1.0937248 0.95605642 -0.29428893 -0.041543446 0.02408907
6.754354 -4.8898125 -1.0936452 0.94421983 -0.32882974 -0.026171066 0.025199646
6.7519794 -4.8951411 -1.0939996 0.91752052 -0.39785868 -0.047357161 0.022633731
6.7508225 -4.8973579 -1.0939884 0.86535031 -0.52716708 -0.16680174 0.03349274
6.692203 -4.8798904 -1.0865008 -0.29811233 -0.95343518 0.051707339 0.0021586223
6.6854348 -4.877996 -1.0857109 -0.51607174 -0.88480115 0.020409096 0.0017103449
7.7094598 -4.5394902 -1.1753931 0.98851532 0.28807503 -0.13739273 0.023804704
7.7097688 -4.5427718 -1.1756803 0.99387687 -0.10675608 0.37981227 0.023804704
7.7158957 -4.5529642 -1.17714 -0.057577875 -0.84798282 -0.52688706 5.7273133e-05
6.7516441 -4.0176883 -1.0322517 0.19833207 -1.2411095 -0.20790742 0.045912094
6.74857 -4.0189176 -1.0322078 0.60516846 -0.80581939 -0.26450837 0.03309159
6.7459712 -4.0230918 -1.0321208 0.86546516 -0.44565701 -0.29858282 0.040488862
6.7452459 -4.0251422 -1.0319566 0.86886996 -0.40284529 -0.33400035 0.035077628
6.9281802 -4.2395411 -1.0677028 0.84685242 -2.6899571 -0.50714958 0.18512303
6.9222779 -4.2428894 -1.067149 0.96719503 -0.62331343 -0.16346435 0.18512303
6.9284639 -4.2491155 -1.0682678 0.97166365 0.2300967 0.26210797 0.089985654
6.9661002 -4.3169999 -1.0774 -2.4268932 -3.2759879 0.038542856 0.019061154
6.9376001 -4.3084998 -1.0736001 0.087808102 0.43693036 0.89519918 0
6.933744 -4.3201528 -1.0741014 0.43014911 -0.90275621 0.0017219329 0.025880663
6.9226851 -4.3167071 -1.0725923 0.9219135 -0.82006502 0.18538727 0.068924196
6.9220834 -4.3223386 -1.0728776 0.96785712 0.023069322 0.54389346 0.057578053
6.9229589 -4.3260026 -1.0733234 0.80615848 -0.020527536 0.61078387 0.053144142
6.9282999 -4.3353 -1.0746 0.57899684 0.23441213 0.78090566 0
6.9674306 -4.5049529 -1.0913728 0.071646973 -0.97985166 0.46990177 0.0063977591
6.963913 -4.5057716 -1.0909125 0.37441304 -0.83219111 0.43643758 0.0044886256
6.9597154 -4.5091228 -1.0908853 0.51652062 -0.71913332 0.46562743 0.012696718
6.9574108 -4.5105028 -1.0909972 0.42157367 -0.67713255 0.62236464 0.020188097
6.9512167 -4.5124617 -1.0904071 0.23187628 -0.67916626 0.70185649 0.014753974
6.9471393 -4.5131145 -1.0896844 0.24616337 -0.69458473 0.67633986 0.011112851
6.9419136 -4.5159245 -1.0893731 0.36894256 -0.61835039 0.69398439 0.0018189662
6.9395247 -4.5172992 -1.0894101 0.4302274 -0.5613789 0.71023792 0.0047004134
6.935183 -4.5206614 -1.0886652 0.61244541 -0.5587514 0.56007993 0.013294614
6.9336724 -4.5225291 -1.0888735 0.67960113 -0.53974104 0.49752465 0.0090176798
6.9308233 -4.5266099 -1.0892959 0.68235749 -0.44391561 0.58951735 0.012774784
6.9293036 -4.5285654 -1.0893198 0.4125829 -0.77726084 0.52631599 0.024457827
6.764914 -4.8513327 -1.0968889 0.97179091 -0.1865872 -0.18132338 0.01355679
6.7629061 -4.8558235 -1.0970784 0.93905234 -0.30079967 -0.16768281 0.0092870975
6.7621102 -4.8584704 -1.0971789 0.92999649 -0.30653158 -0.20345813 0.009812532
6.7607374 -4.863482 -1.0974873 0.94439662 -0.27189425 -0.18502425 0.0089596706
6.7600198 -4.865943 -1.09763 0.9205851 -0.32391334 -0.21856473 0.011379677
6.7577376 -4.8713751 -1.0977706 0.94783491 -0.25048822 -0.19795352 0.017443109
6.7574162 -4.8735728 -1.0979594 0.95639592 -0.21247499 -0.20180489 0.01308539
6.7561536 -4.8797979 -1.0983407 0.97784704 -0.16767713 -0.12577394 0.013960883
6.756031 -4.8814893 -1.0984529 0.98127586 -0.14970037 -0.12119965 0.014844476
6.7550874 -4.887486 -1.0988464 0.97203737 -0.20206998 -0.12039625 0.017201385
6.7547398 -4.8907762 -1.0990578 0.95942467 -0.26586571 -0.094346404 0.022848913
6.7526054 -4.8954163 -1.099306 0.86559093 -0.518534 0.0080675343 0.015823614
6.7512336 -4.8973637 -1.0991929 0.83177871 -0.58285677 -0.0208026 0.017600449
6.6937017 -4.8809919 -1.0920012 -0.90881002 -0.83624619 -0.11269428 0.0055336598
6.6858664 -4.8785257 -1.090886 -0.59902221 -0.88224798 -0.010990397 0.0016818705
7.708828 -4.5392213 -1.1781087 0.89496863 0.60133052 -0.20286107 0.014191808
7.7115951 -4.5440016 -1.1788006 0.86485636 0.3351934 0.70045269 0.010283809
7.7146034 -4.5508275 -1.1786674 0.73742568 0.38280681 0.55647314 0.03062192
6.7508268 -4.0173249 -1.0347084 0.30136707 -1.1165391 -0.17655222 0.034547824
6.748136 -4.0188274 -1.0345397 0.65350437 -0.74863029 -0.17881455 0.039966684
6.7454376 -4.0227008 -1.0344473 0.83173019 -0.48999041 -0.27831495 0.040212829
6.7444072 -4.0247374 -1.0344739 0.7656045 -0.57194901 -0.31059283 0.047252011
6.9246006 -4.2410922 -1.0691353 1.2814767 -1.3080736 -0.4871743 0.12713881
6.9231453 -4.242063 -1.0696537 1.0815229 -1.0460896 -0.12784037 0.15594156
6.9295001 -4.2498999 -1.071 0.85713983 1.5972044 -0.033301245 0.00042721658
6.964437 -4.3162804 -1.0797355 0.59124547 -0.78535521 -0.18342859 0.030409927
6.935041 -4.304091 -1.0758808 0.1717892 0.55476964 0.81407565 0.0014770341
6.9304767 -4.3039103 -1.0749706 -0.39970785 0.47096914 0.83134305 0.030245848
6.9320998 -4.3196998 -1.0764 -0.49693647 -0.87413472 0.67295152 0.14587207
6.9237661 -4.31743 -1.0750027 0.56861693 -0.77521294 0.56367385 0.11004721
6.9250765 -4.3242016 -1.0760372 0.71324956 0.22372442 0.72383416 0.11820024
6.928905 -4.329741 -1.0769171 0.60756588 0.26370734 0.74921435 0.00037943001
6.9657478 -4.5068049 -1.0939562 0.2545698 -0.86489636 0.47429454 0.0098044565
6.9608216 -4.5097127 -1.0936561 0.60632688 -0.6629557 0.43931791 0.0083265668
6.9589009 -4.5117602 -1.0933064 0.53217334 -0.6785813 0.50633001 0.020772813
6.9563913 -4.515626 -1.0942103 0.37404853 -0.68962121 0.62961394 0.020179123
6.9502816 -4.5154791 -1.0925205 0.26016372 -0.67011571 0.70968759 0.014382374
6.9448943 -4.5177145 -1.0926347 0.4066368 -0.69317514 0.6004256 0.0065427669
6.9423375 -4.5191035 -1.0923733 0.42846373 -0.66481233 0.61946845 0.0065423166
6.9367557 -4.5216622 -1.0918487 0.57916164 -0.6281445 0.51979363 0.011163757
6.9353209 -4.5234871 -1.0924723 0.62713432 -0.57020116 0.53087813 0.013947472
6.9323764 -4.5278177 -1.0912775 0.58436292 -0.61839515 0.53070092 0.023472887
6.9314952 -4.5298815 -1.0925058 0.45105949 -0.71453816 0.54174399 0.032202329
6.763792 -4.8500981 -1.0992647 0.93847185 0.32798776 -0.36397344 0.057408717
6.7625895 -4.8555369 -1.0996834 0.92147624 -0.34992805 -0.1725051 0.013409716
6.761723 -4.8581071 -1.0998052 0.93301147 -0.30820188 -0.18861696 0.014798847
6.7603769 -4.8633461 -1.0999762 0.93762898 -0.27344215 -0.21479365 0.011355695
6.7596912 -4.8654542 -1.1001657 0.92147911 -0.32499629 -0.21320835 0.012436878
6.757359 -4.8707738 -1.1003211 0.96025449 -0.23394324 -0.15306522 0.016008975
6.7568026 -4.8724914 -1.1004027 0.95868093 -0.24485105 -0.14746621 0.020596309
6.7560129 -4.8796721 -1.1009399 0.97328258 -0.19074318 -0.12792653 0.013746741
6.7556343 -4.8814931 -1.1010016 0.98368078 -0.12550637 -0.12910518 0.014307129
6.7545505 -4.8873897 -1.1013919 0.96799457 -0.18878955 -0.16676211 0.014635495
6.7542539 -4.8904905 -1.1015781 0.96359593 -0.22292 -0.14873631 0.018744521
6.7524319 -4.8953629 -1.1018529 0.88573021 -0.52172261 -0.080800414 0.022350369
6.7512298 -4.8971238 -1.1017737 0.87878001 -0.53381842 0.035142262 0.027690852
6.6932116 -4.8805428 -1.09451 -0.53039879 -0.91353911 0.088153414 0.009888527
6.6880984 -4.8800054 -1.0938991 -0.31057066 -0.93672293 0.19422804 0.0052543818
7.711647 -4.5407567 -1.1840919 0.46216762 0.95605713 0.16286016 0.011008865
7.7184 -4.5479999 -1.1854 2.5139403 -3.7722704 1.8573346 0.01760737
6.7502947 -4.0173149 -1.0395862 0.59663939 -0.81169277 -0.15624382 0.031368393
6.748735 -4.0185938 -1.0393873 0.6518839 -0.75627303 -0.11885625 0.027373495
6.7454524 -4.0225782 -1.0393953 0.78973669 -0.59278089 -0.15861928 0.034387857
6.7435036 -4.0243979 -1.0393012 0.63987648 -0.79016227 -0.19865587 0.030864418
6.9254556 -4.2386556 -1.0748931 -0.21762981 -1.6126562 -0.19084775 0.030585978
6.9221854 -4.2426853 -1.0748134 1.0936545 -0.34097335 0.081606917 0.030585978
6.9308009 -4.2506986 -1.0763 -0.53733808 -0.8433249 -0.0084175235 3.7819461e-06
6.9354024 -4.2979088 -1.0803126 0.062038727 0.48053056 0.90831769 0.013730778
6.926991 -4.298892 -1.0793954 0.64802706 -0.53674757 -0.60800606 0.16352713
6.9260607 -4.3012347 -1.0794767 1.5829016 -0.13379201 -0.39725369 0.17117578
6.9325018 -4.3211737 -1.0814286 -0.26421267 -0.95241725 0.15196399 0.029406574
6.9313741 -4.3221812 -1.0816189 0.71263778 -0.012689694 0.9711296 0.12360258
6.9705963 -4.5099912 -1.0999063 -0.67516768 -1.1811097 0.55932498 0.017510161
6.9635434 -4.5115542 -1.0991656 0.48337662 -0.75137115 0.45899138 0.021190733
6.9617014 -4.5132475 -1.099604 0.59591669 -0.66992283 0.44291031 0.017801141
6.9582677 -4.5172739 -1.0987408 0.63485712 -0.66614163 0.39529952 0.011869409
6.9569979 -4.5188928 -1.0996541 0.4660362 -0.75642413 0.46102634 0.020532642
6.947432 -4.5193105 -1.0982488 0.32587126 -0.72801018 0.6062963 0.017420406
6.944581 -4.520648 -1.0977836 0.40044549 -0.69605666 0.59725237 0.010083747
6.9407439 -4.5240002 -1.0980351 0.5640375 -0.63598073 0.52722079 0.0074518919
6.9380617 -4.5255041 -1.0968611 0.61843055 -0.55845588 0.55388808 0.0080785779
6.9357495 -4.5298791 -1.0974422 0.55317736 -0.63513988 0.53986657 0.021966619
6.9344034 -4.5317807 -1.0980202 0.49322227 -0.68369329 0.53801864 0.027571609
6.9268379 -4.5333076 -1.0968405 -0.79449308 -1.4392521 0.063155279 0.023682572
6.7621694 -4.8555765 -1.1047559 0.90222204 -0.39162898 -0.19364984 0.017622709
6.7610164 -4.8579807 -1.1048555 0.92373598 -0.34591758 -0.1850028 0.014847838
6.7594519 -4.8623052 -1.1050591 0.94349808 -0.28505996 -0.1693389 0.013235381
6.7586694 -4.8655376 -1.1051915 0.94979078 -0.26714966 -0.16333036 0.016015675
6.7572217 -4.8699164 -1.1054119 0.96496928 -0.24891196 -0.090000391 0.016723257
6.7564292 -4.8727236 -1.1055552 0.96767533 -0.23959255 -0.082071804 0.015582738
6.7555261 -4.8785858 -1.105992 0.97191209 -0.20214871 -0.12254837 0.014660482
6.7548723 -4.8811808 -1.1061563 0.96280825 -0.22525069 -0.15017967 0.011448215
6.7533684 -4.8861961 -1.1063738 0.96788937 -0.20142844 -0.15042593 0.01302775
6.7528377 -4.888586 -1.1065202 0.96780163 -0.21024172 -0.13848822 0.015480256
6.7517838 -4.8945661 -1.1069372 0.96881092 -0.23201372 -0.093423516 0.017667498
6.7512631 -4.8976331 -1.1071661 0.98230296 -0.23437624 0.042900652 0.022104822
6.6947908 -4.8820791 -1.0998622 -0.25085339 -1.0162709 -0.10912995 0.019945823
6.6913886 -4.8827534 -1.099552 0.69439101 -0.96517783 0.49561366 0.019945823
7.7107 -4.5402999 -1.1868 0.48598251 1.1841314 -0.039639432 0.0028768063
7.7194071 -4.5485864 -1.1884001 -0.4732213 -0.88088381 0.010263586 4.4495087e-06
6.7503233 -4.0168991 -1.0418934 0.42775315 -1.0414494 -0.18137015 0.033250585
6.7482338 -4.0189271 -1.0418582 0.71804839 -0.67707264 -0.1678057 0.028080346
6.7451363 -4.0222144 -1.0416592 0.78077537 -0.59788263 -0.18646015 0.026560273
6.7432795 -4.0240088 -1.0416631 0.58536494 -0.87196285 -0.15101035 0.026534073
6.9249554 -4.2384272 -1.0773332 -3.5190094 -5.4862819 0.055238802 0.030163128
6.9222713 -4.2426081 -1.0773573 4.2443476 3.2505319 0.12163164 0.030163128
6.9312983 -4.2510033 -1.079 -0.53760976 -0.8431856 -0.0037149573 1.6988817e-05
6.9324365 -4.2934232 -1.082947 0.19707184 0.73047727 0.93380749 0.079872206
6.9301028 -4.2948503 -1.0818161 0.25276026 -0.96189755 -1.5633416 0.16883089
6.9259973 -4.2981219 -1.0819325 0.8240419 -0.3674871 -0.48285699 0.21660995
6.9256992 -4.3012114 -1.0820104 0.98842877 0.26075825 -0.0038697293 0.10850225
6.9377999 -4.3232002 -1.085 0.41650179 -0.27766785 0.8656944 0
6.9461999 -4.3313999 -1.0865 -0.26034176 -0.92732573 -0.26886645 0
6.9642258 -4.5123911 -1.101354 0.43378317 -0.75393111 0.49655935 0.015396408
6.9629273 -4.5139251 -1.1023222 0.52358592 -0.71131766 0.46971557 0.01938241
6.9594836 -4.5179915 -1.1018485 0.62555653 -0.6830768 0.37701648 0.012162913
6.9570837 -4.5195255 -1.10157 0.53973454 -0.73605865 0.41120204 0.011544978
6.9518013 -4.5220098 -1.1016293 0.23549588 -0.79383385 0.56338876 0.013768837
6.9463329 -4.5218444 -1.1005197 0.27014771 -0.79466796 0.56237131 0.012406264
6.9422226 -4.5251236 -1.1005805 0.57729316 -0.59087962 0.56667787 0.0070005618
6.9404426 -4.5269499 -1.1005449 0.60758048 -0.54836315 0.58069992 0.005170614
6.9373007 -4.5308156 -1.1003183 0.59014744 -0.64157087 0.49119401 0.020831401
6.9354625 -4.5326443 -1.1004373 0.54203087 -0.69492501 0.47620338 0.022704551
6.9283133 -4.5343742 -1.09954 -0.055698324 -0.9748385 0.47630471 0.014726674
6.7617135 -4.8552861 -1.1072526 0.9438073 -0.24604288 -0.22701533 0.017523417
6.7607203 -4.8568778 -1.1074425 0.90822327 -0.37735239 -0.23537071 0.016677104
6.7590914 -4.8616967 -1.107639 0.94550955 -0.26239023 -0.19333388 0.018602535
6.7583547 -4.8647151 -1.1078095 0.95248318 -0.25571477 -0.16588721 0.013254344
6.7571316 -4.8708429 -1.1081905 0.97299415 -0.21889132 -0.075153545 0.016255321
6.756597 -4.8728986 -1.108247 0.96624124 -0.25127098 -0.072006166 0.014261425
6.7551947 -4.8785853 -1.1085236 0.96233928 -0.22653541 -0.15056951 0.011986667
6.754436 -4.881146 -1.1086689 0.96801752 -0.21476603 -0.13182077 0.01023792
6.7530084 -4.8866339 -1.10902 0.97277743 -0.21171993 -0.094632141 0.0094477907
6.7524161 -4.8886375 -1.1091236 0.97852588 -0.18313496 -0.096057758 0.010071822
6.7513709 -4.8943138 -1.1095039 0.99367231 -0.12483182 -0.037020236 0.017435918
6.7513556 -4.8978429 -1.1097957 1.0031677 -0.022767264 0.0066971993 0.016287938
6.6948204 -4.8816991 -1.1026378 1.3781769 -0.11209837 0.049299046 0.020398224
6.6926932 -4.8832808 -1.1025224 -0.33752686 -1.6093582 0.2567142 0.020398224
7.7112913 -4.5406146 -1.1925 -0.50435656 -0.86349404 -0.0015909882 8.8137795e-06
7.7210002 -4.5495 -1.1942 0.58585387 1.0424256 -0.010032527 0.00061851618
6.7492433 -4.0163426 -1.0466499 0.30067679 -1.1072775 -0.12666927 0.03874078
6.7464828 -4.017735 -1.0465944 0.56869715 -0.81411874 -0.25536788 0.028478695
6.7437768 -4.0217257 -1.0465512 0.84477967 -0.49997768 -0.26033568 0.021705436
6.7428365 -4.023726 -1.0465151 0.98552471 -0.33447146 -0.15667146 0.027096873
6.9245448 -4.2380319 -1.0823461 2.3196046 2.292233 -0.078523293 0.0070001916
6.922308 -4.2427435 -1.082449 0.78944814 -0.64378411 -0.07140258 0.0070001916
6.930274 -4.2503405 -1.0839 -0.54049361 -0.84134811 0.00018419951 2.1355831e-05
6.9320588 -4.2869263 -1.0867144 -0.50849426 0.62888986 0.61890101 0.0071690092
6.9278245 -4.2902389 -1.0860989 -0.54606575 0.42229471 0.73305273 0.086885594
6.9259682 -4.2918744 -1.086661 0.91769159 -0.06269151 -0.43987599 0.13287649
6.9272509 -4.2988968 -1.0870996 1.0011359 -0.021166626 0.33610171 0.1153964
6.928081 -4.3025236 -1.0878508 1.2604828 0.42384169 0.58172816 0.0509055
6.9500999 -4.3309002 -1.092 0.44228607 0.97939372 0.12708323 0.017728247
6.9576001 -4.3385 -1.0934 -0.23743278 -0.94035858 -0.24362135 0
7.3360939 -4.7433219 -1.1654891 -0.051242698 -0.99467057 0.089468829 0.0037142115
6.9695458 -4.5154157 -1.107914 -0.61869043 -0.90327293 0.87226629 0.02008801
6.9646635 -4.5154223 -1.107129 0.42454413 -0.67469943 0.61790758 0.016198736
6.9617925 -4.5193911 -1.1075063 0.56535619 -0.67635751 0.47216192 0.014585527
6.9598169 -4.5212212 -1.1073861 0.57615268 -0.67567569 0.46015963 0.010482331
6.9542999 -4.5242753 -1.1065434 0.37652782 -0.72008115 0.59767509 0.019869337
6.9538321 -4.5259748 -1.1077715 0.34292454 -0.76848799 0.54025394 0.01137287
6.9446802 -4.5268478 -1.1059743 0.50900376 -0.64793402 0.58365643 0.020148845
6.9432483 -4.5287442 -1.106145 0.58292484 -0.59423196 0.55722129 0.010883596
6.9399657 -4.5324068 -1.1063657 0.57599366 -0.69238943 0.43535584 0.01066512
6.93783 -4.5340767 -1.1061244 0.55776852 -0.73967373 0.37776706 0.0097443098
6.9327507 -4.5368295 -1.1057647 0.43625468 -0.74815804 0.50154346 0.01324807
6.9298429 -4.5381746 -1.1053519 0.21838777 -0.8438912 0.54614246 0.022155523
6.7601519 -4.8536744 -1.1122864 0.91701853 -0.19452026 -0.37890247 0.031203007
6.7596178 -4.8568335 -1.1123588 0.94551456 -0.22802562 -0.23606317 0.020559436
6.7581539 -4.8617473 -1.1126734 0.94334918 -0.25275257 -0.21524847 0.015469078
6.7577629 -4.8641491 -1.1128507 0.9626925 -0.18765791 -0.19533275 0.012278973
6.7565227 -4.8696623 -1.1132349 0.95414317 -0.25275594 -0.16147017 0.011454856
6.7557502 -4.8727574 -1.1134044 0.97202092 -0.1930424 -0.13447908 0.0079294695
6.7543278 -4.8775425 -1.1136352 0.97041452 -0.18085007 -0.16030243 0.010963862
6.7539096 -4.8802981 -1.1137638 0.97493434 -0.17647091 -0.136776 0.0097488929
6.7532101 -4.8866272 -1.1143061 0.98829252 -0.1521835 0.011932784 0.0078188358
6.752738 -4.8888464 -1.1142923 0.98113966 -0.18974465 0.037301194 0.0067437077
6.751369 -4.8942118 -1.1146995 1.0077052 -0.03833434 0.043899655 0.007476978
6.7510662 -4.8969502 -1.1147773 0.9873299 -0.20305759 -0.015459769 0.0076171937
6.6946959 -4.8817716 -1.1074992 1.5404261 0.014879234 0.077645414 0.015220924
6.6928334 -4.8834386 -1.1075932 -0.36822805 -1.629932 0.14454912 0.015220924
7.7125382 -4.5412383 -1.195591 0.68669206 -0.68671954 0.23847494 0.0032898295
7.7210999 -4.5496001 -1.1971 0.55241001 1.1353204 0.050112389 0.0042254804
6.7486391 -4.016355 -1.0492445 0.13479109 -1.267342 -0.1067076 0.034290228
6.7460995 -4.0169749 -1.048654 0.47315621 -0.93004131 -0.20860323 0.028989701
6.7427769 -4.02106 -1.0488228 1.0425407 -0.23948582 -0.24555017 0.036765147
6.7424912 -4.0235724 -1.0489508 1.0719705 -0.15449169 -0.12671581 0.029067485
6.9244437 -4.2381072 -1.0849482 1.6289026 1.2897604 -0.066776164 0.004581057
6.9222603 -4.2425365 -1.0849637 0.67731911 -0.94941962 -0.11490599 0.004581057
6.9305019 -4.2504978 -1.0865 -0.54659235 -0.83737922 0.0057355543 1.9796342e-05
6.9326034 -4.2841768 -1.0890648 -0.56219482 0.54219985 0.63399482 0.01026452
6.9303699 -4.2858572 -1.0890619 0.4345949 -0.67684495 -0.65254152 0.076419361
6.9260144 -4.2894335 -1.0893488 0.80645525 -0.50938225 -0.39392343 0.10355269
6.925045 -4.2910485 -1.0896549 1.2657602 0.20178692 -0.099135242 0.12005856
6.9294801 -4.3002887 -1.0899767 0.87831622 0.0877527 0.55006182 0.07869669
6.9294677 -4.3030334 -1.0900499 0.91307408 0.16580385 0.37256524 0.0071987663
6.9482002 -4.3297 -1.0943 0.46814764 1.0160097 0.19709753 0.016692702
6.9559999 -4.3375001 -1.0957 0.3245002 1.1768944 0.29002288 0.0030605956
7.3372025 -4.743947 -1.168507 -0.88010687 -0.97781414 -0.085636862 0.0030480577
7.3308949 -4.7430506 -1.1677076 -0.062265903 -0.98515648 0.25259945 0.0075648245
6.9685006 -4.5178008 -1.1106995 0.018375717 -0.89019889 0.75453424 0.02122326
6.9628839 -4.5202799 -1.1099533 0.5332436 -0.70146972 0.47309873 0.010572392
6.9616132 -4.5221491 -1.1107017 0.56074959 -0.6377185 0.53138202 0.010863611
6.9574757 -4.5258412 -1.1102113 0.489788 -0.70027965 0.52345127 0.012651028
6.9544683 -4.527029 -1.1097122 0.37603918 -0.76365238 0.52546602 0.010751779
6.9473758 -4.5284538 -1.1092358 0.35739809 -0.66949499 0.66183966 0.019789541
6.9447641 -4.5299358 -1.1084769 0.62682021 -0.55137277 0.59103143 0.014061307
6.9413414 -4.533072 -1.1095833 0.5363065 -0.68918753 0.49033093 0.015895734
6.937871 -4.534718 -1.1077319 0.53320688 -0.71883875 0.44654784 0.011556728
6.9339323 -4.5377021 -1.1084625 0.49434018 -0.72970641 0.47259018 0.012884581
6.9316702 -4.5393085 -1.1082243 0.46337488 -0.71681881 0.52133882 0.012977807
6.7593951 -4.8538008 -1.114736 0.99779505 0.085967362 -0.20008256 0.023236267
6.7595868 -4.8558722 -1.1150825 1.0040017 -0.052897628 -0.18161899 0.021498105
6.7577405 -4.8617148 -1.115235 0.95077842 -0.25900733 -0.17171447 0.012257422
6.7571836 -4.8635311 -1.1154213 0.95187509 -0.23394032 -0.1989833 0.012919385
6.7560468 -4.8692188 -1.1158369 0.95240772 -0.20441309 -0.22642818 0.0077803521
6.7554207 -4.8721838 -1.1158835 0.95897001 -0.19312774 -0.20774274 0.0079289004
6.7539587 -4.8770947 -1.1161971 0.97062886 -0.17503424 -0.16537625 0.0074722981
6.7531967 -4.8804159 -1.1163192 0.98373973 -0.13063343 -0.12366663 0.012449922
6.7532196 -4.8864765 -1.1169012 0.99620718 -0.086951651 0.004855888 0.014724094
6.75284 -4.8887792 -1.1168654 0.98322183 -0.17266744 0.061102618 0.0077554393
6.7515469 -4.8949561 -1.1175462 1.0092613 -0.0080939019 0.091567405 0.0077387686
6.6948209 -4.8816719 -1.1102799 1.5604584 0.68177038 0.11124608 0.0093528684
6.6935849 -4.8840165 -1.1106348 0.45269439 -1.1680406 0.17426772 0.0093528684
7.7160158 -4.5393786 -1.2022591 0.74877542 0.55729192 0.35883301 0.046564821
7.7210279 -4.5459366 -1.202329 0.89600831 0.43178114 0.12414895 0.0044425838
7.7236156 -4.5511508 -1.2031194 1.1511215 -0.14635514 0.56401664 0.0058893329
6.7492924 -4.0161219 -1.0540956 -0.2269512 -1.3363587 -0.084918149 0.028683892
6.744617 -4.0167303 -1.0536945 0.43963355 -0.94090521 -0.20263633 0.040781323
6.7416892 -4.0205059 -1.0535592 1.2570939 0.058230378 -0.13929562 0.084693022
6.7421589 -4.0231228 -1.0537945 1.1820133 0.67243582 -0.021634661 0.086512081
6.9234667 -4.2373872 -1.0897981 1.4164398 0.90997881 -0.056754351 0.0082206279
6.9216304 -4.2422113 -1.0900017 0.65848827 -1.0775762 -0.031831786 0.0082206279
6.9293904 -4.249814 -1.0913998 -0.57338125 -0.81913197 0.016023483 7.3819788e-06
6.934576 -4.2766581 -1.0937814 -0.22101375 0.63132709 0.7631368 0.057595838
6.9320087 -4.2782006 -1.0941263 -0.48409379 0.36192381 0.81592828 0.013990758
6.929512 -4.2821774 -1.0933331 -0.46808699 0.50407469 0.73673093 0.033024348
6.9268107 -4.2836957 -1.0939366 -0.64879507 0.42562321 0.63230324 0.064314798
6.92417 -4.2880454 -1.0942203 1.8270047 0.53426552 0.29784027 0.10671099
6.9268975 -4.2928982 -1.0943841 0.86999995 0.49160981 0.20795876 0.11586558
6.9496837 -4.3308835 -1.0997021 0.74491018 0.66737092 0.038696364 0.0046834643
6.9531069 -4.3353124 -1.1004093 0.81513679 0.58611125 -0.088247128 0.0047440655
7.3369875 -4.7441525 -1.173864 -0.25749159 -0.99061537 0.059536587 0.0022318221
7.3325024 -4.7441173 -1.1733967 0.066613674 -0.97855693 0.20919532 0.013418149
6.9652538 -4.5217018 -1.1156771 0.48733142 -0.74947548 0.45357972 0.0093398551
6.9631457 -4.5233769 -1.1155446 0.58170253 -0.71808213 0.38420761 0.011766272
6.9592948 -4.527389 -1.1151675 0.58679491 -0.71283638 0.38445675 0.01011745
6.9577255 -4.528841 -1.1158023 0.55562472 -0.70548832 0.44164389 0.012733931
6.9516735 -4.5313549 -1.1148856 0.34973693 -0.6970005 0.63334477 0.010804371
6.94942 -4.532629 -1.1150385 0.32907405 -0.70061612 0.63552761 0.0074121808
6.9435439 -4.5348101 -1.1144783 0.42846513 -0.65430266 0.62449563 0.014359478
6.9404292 -4.5362325 -1.1136281 0.47355455 -0.67296612 0.57090199 0.014569548
6.9377098 -4.5398674 -1.114859 0.47580463 -0.70118743 0.53103954 0.010118321
6.9349766 -4.5414119 -1.1139257 0.49456432 -0.73494565 0.46439856 0.015121121
6.930419 -4.5441818 -1.114022 0.7417984 -0.70139825 0.35681587 0.010096859
6.7580357 -4.8520646 -1.1197789 1.086473 0.65827572 -0.20624247 0.022902437
6.7588463 -4.8562341 -1.1200621 1.0049294 -0.038441319 -0.18183829 0.01917026
6.7568245 -4.8604321 -1.1203265 0.94441348 -0.26223257 -0.19930182 0.012423382
6.7558894 -4.8625069 -1.1204528 0.93764067 -0.28929022 -0.19773346 0.012569239
6.7548046 -4.8688955 -1.1206864 0.97281438 -0.15018323 -0.17753951 0.0074534179
6.7545838 -4.8717475 -1.1209449 0.97386706 -0.15534535 -0.16586161 0.0082633644
6.753099 -4.8774543 -1.1213853 0.99229884 -0.099942379 -0.077765413 0.017570848
6.7529206 -4.8789663 -1.1213533 0.99614537 -0.081852093 -0.04194846 0.016838504
6.7535019 -4.8869724 -1.1221879 0.99912328 -0.035891913 -0.022424364 0.012850915
6.7534986 -4.8886237 -1.1220788 0.99909836 -0.054276891 0.0097542368 0.014739276
6.7525015 -4.8951187 -1.1226927 1.0278468 0.066109836 0.052384675 0.013300282
6.6955247 -4.882823 -1.1156932 1.48622 -0.40650481 0.13625754 0.033365566
6.6952853 -4.883564 -1.1156156 1.5849607 -0.55169868 0.15296853 0.033365566
7.7169766 -4.537766 -1.2042046 0.91309637 0.40418869 -0.053726483 0.0026040152
7.7234459 -4.5479064 -1.2056268 0.75788343 0.63330978 0.18670845 0.010660876
7.7251 -4.5518999 -1.2061 -1.5270125 5.0065265 -5.6258426 0.010815404
6.74824 -4.0157409 -1.0564153 -0.12849452 -1.4975722 -0.20457348 0.042730439
6.7444782 -4.0163922 -1.0560343 0.37867343 -0.94645959 -0.2580688 0.04466242
6.7416482 -4.0203495 -1.0559797 1.2453922 -0.096464247 -0.28095362 0.092879929
6.7426143 -4.0235186 -1.056312 1.1169106 1.3223721 -0.042794228 0.13387629
6.9233232 -4.2372088 -1.0923011 1.7789459 1.8165554 -0.055726994 0.0076018549
6.9214926 -4.2422271 -1.0924973 1.0457664 -0.052142199 0.0061950875 0.07218153
6.9283843 -4.2492151 -1.0937988 0.4643431 0.96514928 0.049057666 0.0007424574
6.9307003 -4.2744598 -1.0961168 -0.62688899 0.32905179 0.72629243 0.024556361
6.9296112 -4.2766094 -1.0959114 0.54485768 -0.37154412 -0.78732169 0.030346135
6.9272466 -4.2807817 -1.0955216 -0.61647719 0.45549467 0.64230299 0.023020225
6.92521 -4.2827845 -1.0965126 0.75173324 -0.41966096 -0.52311456 0.029996431
6.9246302 -4.2883868 -1.0960829 1.9641716 0.83850092 0.31813335 0.14534678
6.9327998 -4.2961998 -1.0978 0.65680242 0.51072818 0.55476779 0
6.9554815 -4.3183646 -1.1023682 -0.6754573 -0.70307171 -0.22236827 0.032943338
6.9598799 -4.3219719 -1.102699 0.81451523 0.58012635 0.0042798775 0.0032045215
6.9491658 -4.3301544 -1.1020961 0.58513051 0.91063249 0.011007855 0.0019946974
6.9533987 -4.3359785 -1.1029983 0.77199888 0.63564879 -0.028955592 0.0041061989
7.3387942 -4.7447486 -1.1769124 -0.38704875 -1.0183218 0.004506073 0.0039590877
7.3336396 -4.7445402 -1.1763481 0.11075557 -0.98448288 0.17905815 0.012887828
7.3258114 -4.7461357 -1.1755865 0.17219768 -0.85275561 0.55012405 0.007182064
6.9669404 -4.5229325 -1.1185579 0.21074761 -0.84366578 0.5681029 0.017851789
6.96451 -4.5240726 -1.1187481 0.45385778 -0.74686635 0.50800121 0.019408885
6.9605746 -4.5277781 -1.1185988 0.66451788 -0.63871717 0.3882826 0.011014479
6.9588604 -4.5297565 -1.1185778 0.62878913 -0.62880576 0.45751092 0.016142963
6.9544349 -4.533195 -1.1178384 0.44713801 -0.65009612 0.61982924 0.018307852
6.9523673 -4.5345354 -1.1182281 0.35993546 -0.69120634 0.62710017 0.0036746017
6.9462876 -4.5365024 -1.1176656 0.36016145 -0.66730201 0.65758497 0.0094958898
6.9428406 -4.5376215 -1.1169503 0.44313946 -0.72683984 0.52609175 0.01081623
6.9392347 -4.541029 -1.1172793 0.44632515 -0.72286797 0.52926576 0.012638955
6.9358473 -4.5423112 -1.1163253 0.45044041 -0.76056695 0.46788362 0.014999932
6.9306049 -4.5448747 -1.1160709 0.72689742 -0.72871691 0.30816755 0.010299804
6.7577958 -4.852253 -1.1223795 1.1677644 0.6592018 -0.16708927 0.0244334
6.7583551 -4.855844 -1.1227243 1.0177232 -0.046435893 -0.13266864 0.021854494
6.7563424 -4.8602366 -1.1228634 0.95308781 -0.2645646 -0.15034558 0.016639264
6.7553282 -4.8623614 -1.1229455 0.93504834 -0.30046663 -0.19426057 0.010878004
6.7545495 -4.8680644 -1.123276 0.97745919 -0.1339881 -0.16326739 0.0045887935
6.7542143 -4.8710561 -1.1235423 0.98403978 -0.13244694 -0.12051892 0.0089269057
6.7533345 -4.8768215 -1.1239156 0.97010559 -0.24238725 -0.090991758 0.011330348
6.7529178 -4.8794122 -1.1240401 0.99719548 -0.061014973 -0.059779204 0.016364157
6.7535257 -4.8873343 -1.1249213 1.000893 -0.011100943 0.0014614336 0.013173761
6.7533808 -4.8891125 -1.1248956 0.99790633 -0.074590474 -0.0062193209 0.011959434
6.7524843 -4.8950791 -1.1252949 1.1248564 0.6050294 -0.06125911 0.012558446
6.6954641 -4.8828607 -1.118268 1.3243812 -0.16992112 0.06041941 0.022408376
6.694993 -4.8849049 -1.1183995 1.5439398 -0.49066591 0.12555888 0.022408376
7.7158971 -4.5372047 -1.2096 -0.49869964 -0.86677134 -0.0024778736 4.3773239e-06
7.7227998 -4.5472999 -1.2111 9.5909805 -12.421114 -4.905508 0.010815404
6.7471323 -4.0150819 -1.0611172 -0.19248027 -1.148599 -0.10583892 0.023754135
6.7432351 -4.0154982 -1.0607023 0.34280437 -0.9569332 -0.29434669 0.11951261
6.7401137 -4.0194683 -1.0611718 1.4458946 0.5005036 -0.26846853 0.093646534
6.7442355 -4.0248156 -1.0616601 0.32539815 1.9393898 -0.25427997 0.070179619
6.9233327 -4.2374039 -1.0975032 0.93884045 -0.36341819 -0.038744114 0.0034987242
6.92207 -4.2426901 -1.0976996 1.0341033 0.10187228 0.022179531 0.047873992
6.9269533 -4.2481523 -1.0986028 0.68953931 0.72900265 -0.023895781 0.00069844426
6.9399829 -4.2619557 -1.1012055 1.0828397 -0.5927996 -0.15380813 0.03826303
6.9382849 -4.26372 -1.1011069 0.59646088 -0.81503052 -0.18842383 0.026862102
6.9328632 -4.266737 -1.1009289 0.59407246 -0.64897066 -0.49986008 0.035125017
6.9311152 -4.2685318 -1.1007344 -0.66156447 0.62088418 0.4664914 0.037113488
6.9286084 -4.2731342 -1.1011899 0.70619893 -0.44685495 -0.55690944 0.017381491
6.9274592 -4.2752795 -1.1009597 -0.63955909 0.49297351 0.59104788 0.023074679
6.9237356 -4.278861 -1.1010014 0.41298249 -0.67117035 -0.66583508 0.029161777
6.9692483 -4.3247476 -1.1090975 -0.18701039 -0.98231041 -0.0096606389 0.0025151784
6.9610934 -4.3230171 -1.108097 -0.5800159 -0.86809033 -0.027681308 0.022702007
6.9506679 -4.3314571 -1.1075152 0.74269223 0.68538254 0.040431537 0.0017697975
6.9532571 -4.335413 -1.108075 0.82621568 0.55892962 0.078324959 0.0015761183
7.3385892 -4.7447629 -1.182405 -0.063581675 -1.0606153 0.070138589 0.0090011666
7.3340225 -4.7453856 -1.1817113 0.28127223 -0.95558584 0.1675649 0.011836511
7.329164 -4.7482252 -1.1816226 0.4453972 -0.84493685 0.30105484 0.010932326
7.3266363 -4.7500138 -1.1813161 0.68430537 -0.67259878 0.35712236 0.012173788
6.9691887 -4.5271721 -1.1245239 -1.0917857 -0.63247526 1.3973259 0.024995537
6.9618754 -4.5292878 -1.1228181 0.60582793 -0.66239166 0.44072336 0.018262213
6.9610348 -4.5310311 -1.1243111 0.65612918 -0.63612062 0.40693903 0.022883745
6.9581079 -4.5353351 -1.1240389 0.64530963 -0.56235045 0.51894122 0.015243347
6.9563146 -4.5371938 -1.1238834 0.52809513 -0.66811746 0.52419478 0.012449183
6.9509997 -4.5394878 -1.1235579 0.33938313 -0.72124839 0.60663033 0.01059689
6.9466887 -4.5401216 -1.1228596 0.27726865 -0.8040728 0.5280807 0.012659913
6.9418702 -4.542604 -1.1230636 0.47505155 -0.74737567 0.46758243 0.010371897
6.9389763 -4.5441413 -1.1223127 0.43298483 -0.74818563 0.50421804 0.01067377
6.9322906 -4.5457911 -1.121684 0.43281853 -0.69013345 0.60450268 0.014780458
6.9300809 -4.5471616 -1.1217252 0.57693094 -0.61529166 0.60107243 0.024036516
6.7578511 -4.8549824 -1.1277493 1.0452219 -0.018000672 -0.065610439 0.0213752
6.7557607 -4.8596878 -1.127895 0.93410146 -0.34294328 -0.10808569 0.01388293
6.7548046 -4.8622155 -1.1280582 0.94635808 -0.29977566 -0.12433421 0.0096295485
6.7537441 -4.8681984 -1.1283636 0.97712368 -0.12159719 -0.17474367 0.0082124919
6.7535491 -4.8704443 -1.1285836 0.97773331 -0.10366213 -0.18261766 0.0068373857
6.7528462 -4.8774405 -1.1292299 0.99664962 -0.048128136 -0.068326637 0.015268111
6.7527633 -4.8793888 -1.1292239 0.99723953 0.013000691 -0.075763457 0.014738844
6.7530947 -4.8857756 -1.1298015 1.0008777 0.0058169449 -0.0095178997 0.014336457
6.7530684 -4.8887157 -1.1299931 0.99920112 -0.046353243 -0.0018373172 0.01239791
6.6905742 -4.878448 -1.1226088 0.089102827 1.5566705 -0.4351202 0.030339153
6.6952119 -4.8840837 -1.1234697 1.3757468 -0.08559411 0.12054348 0.03200173
7.7169099 -4.5377827 -1.2125999 -0.50476271 -0.86325276 -0.0030463857 3.4766924e-06
7.7220778 -4.546771 -1.213811 0.92778134 0.34878108 -0.13256523 0.00035056844
6.7455449 -4.0146465 -1.0634981 -0.16187821 -1.1017483 -0.13910364 0.049282007
6.7427783 -4.0150614 -1.0630629 0.32878709 -0.92747569 -0.29474184 0.11094516
6.7390828 -4.0188489 -1.0635602 1.4594557 0.56444895 -0.34098056 0.090177707
6.7454972 -4.0253048 -1.0642002 -0.528036 -0.8491466 -0.011313786 2.9076687e-06
6.9231625 -4.2371163 -1.099897 1.3858472 1.3670366 0.006091672 0.0047267233
6.921977 -4.2421222 -1.1000929 1.0177292 0.072408572 0.039493404 0.048295639
6.927392 -4.2485065 -1.1012995 0.58893883 0.84891778 -0.01140279 0.00095964543
6.9393096 -4.2629967 -1.1036112 0.7426753 -0.78541887 0.028805764 0.033368826
6.9386601 -4.2633491 -1.1037191 0.49715605 -0.87075078 -0.00057102181 0.026671611
6.9319239 -4.266089 -1.1031063 0.59916055 -0.7293092 -0.35418233 0.054176643
6.930202 -4.2678828 -1.1028928 0.60012287 -0.68223298 -0.44631085 0.037150141
6.9281812 -4.2726488 -1.1023556 0.69105721 -0.49464121 -0.52948397 0.027439596
6.9261031 -4.2744288 -1.1030016 -0.60105693 0.49168453 0.63148421 0.018336764
6.9231114 -4.277967 -1.1023129 -0.45427811 0.59715599 0.66898066 0.034986135
6.9684706 -4.3246408 -1.1116014 0.094842985 -1.0406551 -0.16954428 0.0094259437
6.9597001 -4.3221002 -1.1104 8.9717102 -1.2490034 22.813776 0.0016098876
6.9499874 -4.3306389 -1.1098934 0.68222147 0.76984549 0.030802283 0.0016749391
6.9542236 -4.3364568 -1.1109072 0.79500252 0.60089302 0.083899871 0.0018397737
7.3382983 -4.7449346 -1.1849635 0.012984206 -1.0365067 0.068062209 0.0077883005
7.3351207 -4.7454071 -1.1848574 0.26324037 -0.9698137 0.12987421 0.0095503516
7.3296957 -4.7486897 -1.184348 0.49847844 -0.83768034 0.23325883 0.011508617
7.3276291 -4.7503085 -1.1843907 0.64842796 -0.74692005 0.23533976 0.010868299
6.9633317 -4.5297942 -1.126385 0.4580549 -0.74502105 0.49536932 0.035469826
6.9619098 -4.5315914 -1.1270978 0.59945536 -0.6435073 0.47648606 0.029298466
6.9592566 -4.5361385 -1.1262143 0.69481027 -0.50272298 0.51715064 0.016940819
6.9575596 -4.5379596 -1.1265388 0.60967779 -0.63273263 0.49214894 0.028607743
6.9539375 -4.5414228 -1.1268173 0.42572975 -0.68958127 0.60269463 0.014716609
6.9490757 -4.5416036 -1.1257886 0.28894597 -0.81429273 0.5067901 0.0099830003
